# .PCD v0.7 - Point Cloud Data file format
VERSION 0.7
FIELDS x y z
SIZE 4 4 4
TYPE F F F
COUNT 1 1 1
WIDTH 1498
HEIGHT 1
VIEWPOINT 0 0 0 1 0 0 0
POINTS 1498
DATA ascii
2.0801046 -1.4747903 0.82491225
-2.1149876 -1.4203794 0.82483631
2.0959554 -1.4444441 0.82525408
2.1096556 -1.4217557 0.82469732
-2.1537361 -1.3561807 0.82507312
-2.1385622 -1.3789401 0.82580328
2.1352909 -1.3756621 0.8235634
2.150413 -1.3519362 0.82439923
-2.1703112 -1.3246809 0.82460153
2.149699 -1.3497814 0.82137412
2.1663761 -1.3220347 0.82490963
-2.2088377 -1.2576834 0.82427043
-2.1935859 -1.282272 0.8248955
2.1879182 -1.2840971 0.8253777
2.2029135 -1.258402 0.82509404
-2.226831 -1.2249438 0.82474989
2.2201338 -1.2282805 0.82496107
-2.2602096 -1.1686887 0.82381338
-2.2463963 -1.1885102 0.82622528
2.2435396 -1.1876792 0.82460535
2.2573555 -1.1638087 0.82462829
-2.3029957 -1.1002851 0.82584345
-2.2849839 -1.1248895 0.8247056
2.2793734 -1.1257063 0.82503009
-2.3151879 -1.0726147 0.82384634
-2.2986369 -1.0938919 0.82153904
2.2977517 -1.093291 0.82418329
2.3109593 -1.07109 0.82465839
-2.3518128 -1.0099297 0.82272422
-2.3365355 -1.0317582 0.82699031
2.3367229 -1.0259713 0.82516772
2.3500748 -1.0022833 0.82446069
-2.3678412 -0.97857732 0.82395625
2.3654563 -0.97664672 0.82464409
-2.4046102 -0.91561598 0.82574791
-2.3923731 -0.93601882 0.82092386
2.3908784 -0.93258739 0.82476485
2.4041543 -0.91008008 0.82525146
-2.4281759 -0.87445873 0.82473046
2.4232929 -0.87707078 0.8246482
-2.4600818 -0.81858122 0.82457376
-2.4458401 -0.84150499 0.82522273
2.4424047 -0.84317189 0.82483596
2.4589334 -0.81523609 0.82508945
-2.5003366 -0.75067949 0.8232823
-2.4855881 -0.77508724 0.82312787
2.4819326 -0.77530336 0.82501811
-2.5156236 -0.72352165 0.8237716
-2.4989476 -0.74733067 0.82368231
2.4975727 -0.74705172 0.82612628
2.5136364 -0.72047019 0.82506478
-2.5559037 -0.65620649 0.82480973
-2.5406661 -0.68025857 0.82318723
2.5379434 -0.67781949 0.82471138
2.5523217 -0.65341246 0.82510674
-2.5733268 -0.62571943 0.8229388
2.5684977 -0.62476742 0.82524484
-2.6085796 -0.565153 0.82428163
-2.5921514 -0.59297109 0.82277775
2.5920029 -0.58372611 0.8255139
2.6077223 -0.55684191 0.82497495
-2.6339943 -0.52036214 0.82650954
2.622031 -0.52349788 0.82536221
-2.661876 -0.47113904 0.82740748
2.5941546 -0.4568913 0.82526714
2.6092179 -0.4819029 0.82445329
-2.7010164 -0.40341642 0.82261086
-2.6867301 -0.42814076 0.82091427
2.5772781 -0.42733294 0.82540405
-2.7204103 -0.37147221 0.8246417
2.5408814 -0.36491042 0.82481462
2.5555243 -0.38910761 0.82584405
-2.7558067 -0.30932844 0.82708913
-2.7415705 -0.33474228 0.82700574
2.5181077 -0.32542419 0.82342428
-2.776191 -0.27513582 0.8249464
2.4874725 -0.27227879 0.82463074
2.5035632 -0.29791227 0.82403195
-2.8097234 -0.21677759 0.82310289
-2.7953606 -0.24159373 0.8217696
2.4478757 -0.2049686 0.82542527
2.4617226 -0.22764808 0.82443315
-2.8345947 -0.17396505 0.82523674
2.4307914 -0.17510179 0.82370383
-2.8648736 -0.12331453 0.82416719
2.3937294 -0.11111382 0.82549649
2.4085283 -0.13636793 0.8249585
-2.9018533 -0.060550857 0.82948112
-2.889045 -0.081521675 0.82520109
2.371922 -0.073053516 0.82464361
-2.9226427 -0.022781821 0.8247574
2.3390102 -0.016047986 0.82553089
2.353286 -0.040526979 0.82497567
-2.9128191 0.029214896 0.82518798
2.3357184 0.020980006 0.82464427
2.3508513 0.046852931 0.8232342
-2.8850923 0.076763868 0.82519424
2.3654444 0.074566208 0.82443285
-2.8625827 0.11597516 0.82483023
-2.8473451 0.14213522 0.82312566
2.3893719 0.11633711 0.82485265
2.4038405 0.14107001 0.82523215
-2.8331506 0.16732267 0.82946181
2.4229448 0.17380463 0.82566571
-2.8098822 0.20787735 0.83211643
-2.7949557 0.23480824 0.84540039
2.4443533 0.21113637 0.82460004
2.4584057 0.2351415 0.82473207
-2.7721734 0.27430481 0.84335309
2.4805512 0.27361578 0.82440203
-2.7532728 0.30707377 0.84165448
2.4971642 0.30325809 0.82655543
2.5135005 0.33114585 0.82529384
-2.7059112 0.39224654 0.82652253
2.5377908 0.37317988 0.82756644
2.5519454 0.3968257 0.82226551
-2.6876862 0.42387143 0.82773095
2.5682313 0.4256407 0.82477438
-2.660244 0.47149056 0.82955062
-2.6449399 0.49804729 0.83056533
2.5911379 0.46537861 0.82497752
2.6041455 0.48771825 0.82614475
-2.629389 0.52504534 0.82360184
2.6216066 0.52376139 0.82358354
-2.6080339 0.56210905 0.8203693
-2.5925758 0.58893311 0.82137603
2.5958123 0.59034383 0.8250612
2.6087794 0.56757575 0.82484353
-2.5725617 0.62133819 0.83759534
2.575223 0.62549919 0.82535326
-2.5521479 0.65905619 0.84307307
-2.531599 0.68331236 0.83946604
2.540884 0.68528914 0.82424843
2.5565882 0.65806639 0.82442415
-2.5088677 0.72283572 0.83411771
-2.4954023 0.74624825 0.8309496
2.4998937 0.7473352 0.81162447
2.518625 0.72273564 0.8250584
-2.4768653 0.77848488 0.82215589
2.4864972 0.77773672 0.82394809
2.5020273 0.75220001 0.82543421
-2.4557438 0.81520319 0.8216188
-2.4427476 0.83779985 0.81856108
2.4474573 0.84580219 0.82484978
2.4623508 0.8203283 0.82494426
-2.4225349 0.87294275 0.81488955
2.430001 0.87578881 0.82492471
-2.4002495 0.91168433 0.81450737
-2.3877463 0.93342316 0.81154013
2.3922303 0.94090015 0.82029581
2.4087863 0.91279423 0.82281035
-2.3657901 0.97159666 0.80828017
2.3713446 0.97743213 0.82303989
-2.3361864 1.0297953 0.82798231
2.338357 1.0318036 0.81873554
2.353214 1.0096278 0.82408309
-2.3151557 1.0726162 0.82602584
2.2958949 1.0964143 0.80760044
2.3149252 1.0735797 0.82285291
-2.2843692 1.1250794 0.82551581
2.2840014 1.1249037 0.8225252
-2.2608802 1.1658043 0.82575375
-2.2436626 1.1938226 0.8248533
2.2440317 1.1915433 0.81797493
2.261102 1.1653007 0.82050997
-2.2257504 1.2259229 0.82420784
2.2263513 1.2244592 0.82015359
-2.2076249 1.2577386 0.82421666
-2.192338 1.2834048 0.82470566
2.1920238 1.2820317 0.82139337
2.2048554 1.2612898 0.82251865
-2.1685259 1.3248678 0.82560009
2.1490982 1.3498634 0.81626159
2.1691549 1.3219428 0.82081527
-2.1511459 1.3556795 0.82351923
-2.1381049 1.377435 0.82499921
2.1363444 1.3758537 0.82324374
2.1528018 1.3534386 0.82502937
-2.1119514 1.4226718 0.82604808
-2.0966463 1.4477314 0.82803541
2.0968933 1.4408928 0.82852364
2.1108587 1.4208586 0.82299113
-2.0817649 1.474538 0.82616526
2.0783615 1.4754857 0.82374859
-2.0561275 1.5190558 0.82577658
-2.0436695 1.5393658 0.82557189
2.0424566 1.5351834 0.82522243
2.0569825 1.5121044 0.82401115
-2.0229514 1.5769683 0.82385719
2.0295954 1.5555602 0.82661301
-2.0044904 1.6103245 0.82531291
-1.9893135 1.6358949 0.82413268
-1.9677141 1.6737335 0.82485312
-1.9507625 1.708648 0.83849168
-1.9384947 1.7251443 0.82480532
-1.9129139 1.769838 0.82522684
-1.8981804 1.7955116 0.82546824
-1.8813461 1.8246847 0.82520264
-1.8586187 1.8645999 0.82425672
-1.8455726 1.8863034 0.82578808
1.845768 1.883695 0.82221651
1.8573328 1.8637018 0.82293755
-1.8232267 1.9269489 0.82506204
1.8227134 1.923553 0.82077885
-1.8055134 1.9589475 0.82696271
-1.7825019 1.9877697 0.82577133
-1.7256832 1.9964752 0.82555765
-1.6766616 1.9961991 0.82534373
-1.6234376 1.9962057 0.82563794
-1.5800527 1.9953651 0.82477731
-1.5253676 1.9950334 0.82542408
-1.469869 1.9952754 0.82468003
-1.4228449 1.995594 0.82394475
1.7876053 1.9842415 0.82426053
1.8035625 1.9566617 0.81958467
-1.3864379 2.0240216 0.82552338
1.3788916 2.0239079 0.82510954
1.4250162 2.0027728 0.82522941
1.4749011 2.0028741 0.82485366
1.5248703 2.0029173 0.8239131
1.5746797 2.0029855 0.82435203
1.6152066 2.0043547 0.82507682
1.6818268 2.0078716 0.82906282
1.7293326 2.0079484 0.82517737
1.7706071 2.0080147 0.82399791
-1.3618705 2.0666168 0.82423699
-1.3454732 2.0949914 0.8260349
1.3418301 2.0866451 0.82480514
1.3570225 2.0608044 0.82380819
-1.327636 2.1260576 0.82498646
1.3197745 2.1247475 0.82531399
-1.3066045 2.1624148 0.82295579
-1.2927742 2.1866531 0.82357895
1.2880712 2.1798313 0.82433844
1.3046442 2.1513252 0.82554102
-1.2706575 2.2257404 0.82467395
1.2485906 2.2468195 0.82362461
1.2619606 2.2241976 0.82422119
-1.2413474 2.2765586 0.82441187
1.2319082 2.2760201 0.82506418
-1.2150035 2.3223536 0.82460845
1.1941357 2.3409128 0.82495368
1.2081206 2.3181949 0.82454717
-1.185563 2.3736029 0.82658815
1.1752279 2.3742809 0.82431692
-1.1605715 2.4168091 0.82491666
-1.1450253 2.4438977 0.82522595
1.1396941 2.4351757 0.82448971
1.1546781 2.4111018 0.82502955
-1.1259886 2.4766984 0.82379848
1.1173375 2.4752922 0.82469189
-1.1071992 2.5090864 0.82628858
-1.0770369 2.5336521 0.82281804
-1.0250918 2.5357165 0.82455873
-0.97589439 2.5358999 0.82402802
-0.92396003 2.536016 0.82385302
-0.87321472 2.5368989 0.82243013
-0.82307267 2.5365458 0.82431334
-0.77453142 2.5365629 0.8249687
-0.72496951 2.5365517 0.82517904
-0.6742534 2.5364883 0.82392883
-0.62724578 2.5360451 0.82610607
-0.57477975 2.5360348 0.82878959
-0.52326536 2.536521 0.82561439
-0.47449023 2.5362051 0.82412785
-0.42174685 2.5366817 0.82597989
-0.37600178 2.5372262 0.82490373
-0.32510743 2.537854 0.82241702
-0.27413028 2.5378747 0.82658166
-0.22472881 2.5383701 0.82514697
-0.1735719 2.5392108 0.82137805
-0.1220711 2.5395246 0.82102966
-0.073863514 2.539263 0.82183468
-0.02538633 2.5402026 0.82222825
0.024950307 2.5402517 0.82420272
0.074142449 2.5403731 0.82380086
0.12490787 2.5401933 0.82471251
0.17489704 2.5402236 0.82556748
0.2244563 2.5400565 0.82396621
0.27507424 2.5401721 0.82469314
0.32452127 2.5401733 0.82537895
0.37385294 2.5404613 0.82434899
0.42445734 2.5404344 0.82513994
0.4736906 2.5405891 0.82475591
0.52480787 2.540561 0.82418686
0.57552886 2.5406411 0.82433468
0.62586647 2.5406532 0.82464194
0.67540914 2.5405037 0.82562721
0.7250945 2.5404744 0.8254869
0.77486718 2.5407941 0.82534027
0.82391959 2.5407465 0.82544035
0.87470466 2.540539 0.82457882
0.92473489 2.5405114 0.82484215
0.9751333 2.5402596 0.82466841
1.0249542 2.5403559 0.8248691
1.0758877 2.5319796 0.82452625
1.1017739 2.5052919 0.82028043
-1.1013187 -2.5017328 0.8778699
-1.0749819 -2.533004 0.87315154
-1.0248487 -2.5401099 0.87287444
-0.97640872 -2.540513 0.87131494
-0.92605841 -2.5407941 0.87072212
-0.87550431 -2.5406356 0.87338817
-0.82540542 -2.540777 0.87330782
-0.77584726 -2.5409007 0.87198263
-0.72356057 -2.540777 0.8723433
-0.67680699 -2.5406733 0.87045807
-0.62706894 -2.5403154 0.87229472
-0.57540035 -2.5402553 0.87245071
-0.52473587 -2.5397663 0.87449002
-0.47794935 -2.5397439 0.87218928
-0.42786142 -2.5396979 0.87324858
-0.38085711 -2.5396652 0.87152249
-0.32952031 -2.5391128 0.85532796
-0.27540615 -2.539083 0.85549623
-0.23019427 -2.5383701 0.85409892
-0.17964192 -2.5383277 0.85575724
-0.12885953 -2.5382853 0.85742301
-0.074317873 -2.53985 0.85933208
-0.02112267 -2.5406997 0.86179799
0.026096361 -2.5411937 0.8631438
0.075128168 -2.5405834 0.86175865
0.12628193 -2.5405233 0.86148244
0.17359571 -2.5405447 0.85954213
0.22326539 -2.5400851 0.860479
0.27401325 -2.5396078 0.86094409
0.32572654 -2.5391564 0.86255187
0.3748661 -2.538779 0.86429822
0.4272432 -2.5378261 0.86649847
0.47220922 -2.537791 0.86428356
0.52600569 -2.5377457 0.86601812
0.57328004 -2.5377066 0.86754251
0.62384021 -2.5369384 0.87199098
0.67576861 -2.5363138 0.87189692
0.72255677 -2.536057 0.8731187
0.77487206 -2.5361631 0.87365907
0.82514131 -2.536041 0.87482363
0.88054937 -2.5362291 0.87300032
0.924546 -2.5352674 0.87884486
0.97909993 -2.5351923 0.87616652
1.0209016 -2.5351431 0.87977988
1.0772127 -2.5321281 0.87645537
1.1051641 -2.5098128 0.87726504
-1.1192479 -2.4719365 0.87165326
1.1242445 -2.4765649 0.87756699
-1.1556602 -2.4083562 0.87353832
-1.1422423 -2.4315631 0.87472898
1.1456568 -2.4392114 0.87695324
1.160244 -2.4145191 0.87197506
-1.1737945 -2.3770695 0.8711161
1.1834121 -2.3736918 0.87806469
-1.209782 -2.3145666 0.87316215
-1.1940883 -2.3417218 0.87573308
1.1982727 -2.3483553 0.87595981
1.2115328 -2.3247771 0.87427628
-1.2339547 -2.2728806 0.87222421
1.2375931 -2.2795603 0.87216657
1.2509444 -2.2564793 0.87186432
-1.2631111 -2.2224512 0.86984658
-1.2482269 -2.2480454 0.87518996
1.2706017 -2.2212749 0.87195241
-1.3034493 -2.1580453 0.87207603
-1.2892786 -2.1802316 0.87282932
1.2931889 -2.1813006 0.87307513
1.3057488 -2.1606283 0.87258798
-1.3210138 -2.127656 0.87589598
1.3274425 -2.1226795 0.87488782
-1.3384666 -2.0974679 0.87268847
1.3439881 -2.0932834 0.87419361
1.3593165 -2.0672328 0.87576532
1.3837446 -2.0249178 0.87471211
1.3982854 -1.9967453 0.87273991
1.4188629 -1.9958729 0.87540376
1.4787065 -1.9954599 0.87503403
1.5263005 -1.9958552 0.8738786
1.574695 -1.9951824 0.8730219
1.6259843 -1.9957778 0.87410522
1.6737036 -1.9954814 0.87564117
1.7235256 -1.9958606 0.87388676
1.7803237 -1.9861501 0.87444669
1.8031766 -1.9576123 0.8748188
1.8214918 -1.9261957 0.87432534
1.8438779 -1.8875017 0.87555104
1.8577685 -1.8635218 0.87480724
-1.885867 -1.8079441 0.85695863
1.8784039 -1.827571 0.87263834
-1.9102575 -1.7657599 0.85170001
-1.8981111 -1.7867677 0.85431886
1.8955427 -1.7980862 0.87486446
1.9095412 -1.7736437 0.87599665
1.9356114 -1.7284042 0.87528503
1.9514999 -1.7008257 0.87527013
1.9656895 -1.6762053 0.87469697
-2.0045371 -1.615272 0.85389614
-1.9942944 -1.6329505 0.85132128
1.9897115 -1.6345972 0.87477809
2.00405 -1.6096671 0.87441522
-2.0252504 -1.5795224 0.85910308
2.0230844 -1.5764956 0.87570488
-2.0638695 -1.5124995 0.86204618
-2.0461559 -1.5428871 0.85785723
2.0438359 -1.5403951 0.87383443
2.0598421 -1.5126202 0.87230903
-2.1000562 -1.4504293 0.86503696
-2.0830696 -1.4734656 0.87418282
2.0817425 -1.4705396 0.86677915
-2.114624 -1.4184436 0.87135595
-2.0957875 -1.4447519 0.88308829
2.0950665 -1.4465933 0.8728376
2.1098547 -1.4205093 0.87189496
-2.1530764 -1.3580928 0.86747962
-2.1376936 -1.3782325 0.87133163
2.134732 -1.3766936 0.87465388
2.1503589 -1.3519548 0.87336189
-2.1704681 -1.3241656 0.87255466
2.1497028 -1.3497076 0.87164474
2.1653295 -1.3234583 0.87340093
-2.2089188 -1.2582101 0.87053567
-2.1933768 -1.2824279 0.87068224
2.18817 -1.2834029 0.87539846
2.2031758 -1.2578871 0.87628973
-2.22667 -1.2262801 0.87077367
2.2209752 -1.226808 0.87432289
-2.2605162 -1.1702951 0.87124896
-2.2460277 -1.191558 0.86888599
2.2437782 -1.1872071 0.87436831
2.2572761 -1.1641638 0.87547469
-2.3029699 -1.100268 0.87394458
-2.285893 -1.1250927 0.87272346
2.279516 -1.1253868 0.87584567
-2.316397 -1.0718086 0.87109816
-2.2986259 -1.0938543 0.85953128
2.2977974 -1.0929859 0.87464082
2.3112445 -1.0703804 0.874138
-2.3525 -1.010151 0.87630504
-2.3369124 -1.035395 0.87410241
2.3362761 -1.0264521 0.87452805
2.3500552 -1.0022488 0.87487829
-2.3695319 -0.97863311 0.8729015
2.3653109 -0.9768315 0.87468714
-2.4041464 -0.91953284 0.87195212
-2.39187 -0.93829 0.86525077
2.3910213 -0.93261695 0.87495291
2.4042387 -0.91048372 0.8748889
-2.4302619 -0.8757742 0.87450254
2.4238575 -0.87626296 0.87476772
-2.4619017 -0.8210972 0.87521601
-2.4495544 -0.84243667 0.87373853
2.4424679 -0.8431434 0.87530547
2.4588108 -0.81579751 0.8747018
-2.4855659 -0.78020328 0.87493891
2.4818075 -0.77578449 0.87477493
-2.5159788 -0.72764802 0.8744089
2.4979091 -0.74696362 0.87566835
2.5129883 -0.72161883 0.87510502
-2.5582078 -0.65467584 0.87208623
-2.5412455 -0.68397993 0.87740332
2.5377965 -0.67831194 0.87514472
2.5525823 -0.65330315 0.87476695
-2.5757802 -0.62365401 0.87231159
2.5675638 -0.62634146 0.87443775
-2.6080823 -0.56770122 0.87180102
-2.592258 -0.59440869 0.8684774
2.5925152 -0.58238357 0.87577462
2.6076171 -0.55684787 0.87498105
-2.6330762 -0.52365118 0.86968601
2.6219397 -0.52397132 0.87490302
-2.6639504 -0.46750039 0.85980093
2.5950153 -0.45807406 0.87358695
2.6096804 -0.48271209 0.87535799
-2.7009568 -0.40346164 0.86065769
-2.6866715 -0.42818394 0.85886878
2.5777898 -0.42814758 0.87421536
-2.7203302 -0.37208939 0.87335896
2.5410013 -0.36482203 0.87523764
2.5558414 -0.38958311 0.87570655
-2.7558334 -0.3101376 0.87185431
-2.7427986 -0.33323348 0.87226903
2.5180037 -0.32497483 0.875108
-2.7753162 -0.27668637 0.87209207
2.4876797 -0.27216074 0.87485248
2.5037928 -0.29832083 0.87326467
-2.809737 -0.21721563 0.87333047
-2.7952297 -0.24223593 0.86901474
2.4478023 -0.20430891 0.87528783
2.462158 -0.22854806 0.87491429
-2.8345563 -0.17396984 0.8719604
2.4308524 -0.17511265 0.87463123
-2.8630831 -0.12635335 0.87406343
2.3935335 -0.11072326 0.87540698
2.408443 -0.13629563 0.87491626
-2.9018219 -0.06074265 0.87810779
-2.8890467 -0.081462026 0.87523127
2.3719206 -0.072983757 0.87477934
-2.9226601 -0.022958441 0.87569427
2.3389766 -0.015968133 0.87511986
2.3532677 -0.040250953 0.87479341
-2.9147191 0.026322031 0.87532246
2.3357089 0.021428542 0.87497216
2.3508205 0.046878785 0.8769629
-2.8863456 0.075856969 0.87547785
2.3495994 0.050000191 0.89752388
2.3653355 0.074768901 0.87477297
-2.8613553 0.11909093 0.87309736
-2.8462224 0.14524217 0.8749035
2.3894973 0.11641549 0.87408483
2.4038053 0.14058027 0.87471038
-2.832051 0.17013629 0.87539035
2.4223535 0.17281629 0.87422216
-2.8101852 0.20836103 0.87535787
-2.7949212 0.2348243 0.87393188
2.4446554 0.21182898 0.87289274
2.458847 0.23596294 0.87615925
-2.7710538 0.2761969 0.87576288
2.4811742 0.27480561 0.87423849
-2.753232 0.30708933 0.87713337
2.4979799 0.30465198 0.87413138
2.5136385 0.33141711 0.87477279
-2.7058635 0.39227986 0.85784227
2.5372357 0.3721095 0.87459826
2.5529225 0.39853036 0.87462217
-2.6876397 0.42390281 0.85910463
2.5680175 0.42546675 0.87505931
-2.6592221 0.47085381 0.86510545
-2.6451659 0.4917205 0.87060344
2.5906653 0.46507329 0.87465173
2.6045861 0.48897329 0.87360346
-2.6264458 0.5252248 0.86242348
2.6215973 0.52366704 0.87561685
-2.6076238 0.55985141 0.85959238
-2.5923688 0.58343858 0.85971338
2.5950093 0.5914371 0.87272412
2.6095929 0.56638777 0.87334752
-2.5708444 0.62329185 0.860084
2.5751197 0.6263122 0.87572104
-2.552124 0.65906757 0.86213708
-2.5401547 0.67657173 0.86154461
2.5408416 0.68544149 0.87509036
2.5568099 0.658113 0.87426513
-2.5145502 0.72426766 0.86471748
2.5193782 0.72254974 0.87518579
-2.4862053 0.77345347 0.86666399
2.4882357 0.77661884 0.87368882
2.5020452 0.75234795 0.87427962
-2.4608822 0.81739622 0.86840308
-2.4449992 0.84495693 0.86949372
2.4475403 0.84729654 0.87571609
2.4615295 0.82269639 0.87529218
-2.4290605 0.87261492 0.87058842
2.429702 0.87769461 0.8745808
-2.4066763 0.91145754 0.87212563
-2.3906307 0.93930054 0.87322748
2.3925753 0.94211048 0.87297559
2.4089932 0.91361141 0.875386
-2.371314 0.97283012 0.86809283
2.3728578 0.97609764 0.8728568
-2.3551674 1.0008491 0.86919218
-2.3389633 1.0289676 0.87029535
2.339607 1.0336255 0.87199306
2.3543615 1.0083357 0.87670392
-2.3145308 1.0743206 0.87474185
2.3182187 1.070455 0.86527228
-2.2846246 1.124878 0.87431699
2.2790101 1.1343427 0.87165457
-2.2608378 1.1651038 0.87362248
-2.2436717 1.1935588 0.87493306
2.2455502 1.1922375 0.87549794
2.2598481 1.1674978 0.87385327
-2.2268114 1.2244349 0.87457812
2.22417 1.2292351 0.87462765
-2.2075944 1.2575916 0.87619096
-2.1926179 1.2825772 0.87545681
2.1941545 1.2811706 0.87726426
2.2050998 1.2622283 0.87848693
-2.1685643 1.3250073 0.87527579
2.1723731 1.3188649 0.87483126
-2.1519139 1.3563859 0.87676209
-2.1376822 1.3778824 0.87464613
2.1371651 1.3744838 0.87411427
2.1543133 1.3501192 0.87281418
-2.1142018 1.4189656 0.87579495
-2.0968289 1.447648 0.87306845
2.096561 1.4416665 0.87523234
2.1110556 1.4202056 0.87481135
-2.0822284 1.474382 0.87423986
2.0770559 1.4766936 0.87532812
-2.0570214 1.5189193 0.8754009
-2.0439265 1.5396632 0.8725757
2.0429022 1.5345925 0.87371969
2.0567319 1.51104 0.87124151
-2.023361 1.5768845 0.87549192
2.0195906 1.572782 0.87869775
-2.004328 1.6117673 0.87501121
-1.9896191 1.6367213 0.87489545
1.9903978 1.6231918 0.88669312
-1.9675714 1.6742539 0.8748399
1.967881 1.6620672 0.89859235
-1.9507335 1.7086493 0.87605494
-1.9380624 1.7256559 0.87405998
-1.9129021 1.7695853 0.87475479
-1.8982407 1.7950405 0.87530154
-1.8806682 1.8258138 0.87420553
-1.858849 1.8639843 0.87406814
-1.8457369 1.8856781 0.87557638
1.845764 1.883628 0.86925793
1.8573276 1.863636 0.87002772
-1.8231214 1.9266373 0.87362808
1.8227106 1.9234719 0.87554687
-1.8053728 1.9593216 0.87498951
-1.7834024 1.9868206 0.87423182
-1.7261575 1.9965832 0.87465155
-1.6739407 1.9961843 0.87434137
-1.6239054 1.9962046 0.87594181
-1.5783433 1.9953227 0.87334049
-1.5252274 1.9949676 0.87531781
-1.4699483 1.9949493 0.87409246
-1.423969 1.9955856 0.87613469
1.7890604 1.9816408 0.87796146
1.8035613 1.9565783 0.87425888
-1.3855973 2.0254772 0.87794274
1.378969 2.0238693 0.87487096
1.4249953 2.0028641 0.87500679
1.4750764 2.0029457 0.87483615
1.5238805 2.0030112 0.87489337
1.574965 2.0030873 0.87530804
1.6161938 2.0052056 0.87353843
1.6795444 2.0078938 0.87521571
1.7281743 2.0079126 0.87538368
1.7707403 2.0080004 0.88106656
-1.3615754 2.0672841 0.87509483
-1.3452103 2.0955114 0.87626809
1.3417821 2.0868225 0.87676638
1.3567686 2.0612698 0.87473309
-1.3274707 2.1263113 0.87394446
1.3192909 2.1254909 0.87377733
-1.3054738 2.1645811 0.8739233
-1.2927001 2.1866202 0.87627679
1.2887266 2.178952 0.87533092
1.3046119 2.1514752 0.87489527
-1.2693735 2.2279079 0.87594664
1.2485851 2.2467782 0.86971331
1.2616302 2.2246819 0.87427461
-1.2407387 2.2776272 0.8735466
1.2339875 2.2724345 0.87605518
-1.2149663 2.3223479 0.87321657
1.1937385 2.3414168 0.87408876
1.2071046 2.3197615 0.87384355
-1.1861451 2.3724945 0.87625247
1.1747323 2.3747506 0.87413853
-1.1599185 2.4178677 0.87728363
-1.1455568 2.443064 0.87440813
1.1404638 2.4337084 0.8723225
1.1546942 2.4105175 0.87288404
-1.1256269 2.477185 0.87299019
1.1173784 2.474618 0.87413579
-1.1074004 2.5084805 0.87501156
-1.0785662 2.5335536 0.87467921
-1.0250591 2.5359132 0.87653333
-0.97678465 2.5356603 0.87697047
-0.92624992 2.5356891 0.87410504
-0.87130117 2.5364411 0.8742767
-0.82148921 2.5360303 0.87456959
-0.77214593 2.5360692 0.87409961
-0.72411263 2.5361583 0.87248009
-0.67297232 2.5359664 0.8756026
-0.62597275 2.5363588 0.87240982
-0.57628673 2.5361371 0.87284774
-0.52285719 2.5365794 0.87618876
-0.47618809 2.5364583 0.8733204
-0.42205054 2.5366566 0.87116992
-0.37691796 2.5370369 0.87826043
-0.32375342 2.537817 0.87452483
-0.27677473 2.5378404 0.87254977
-0.22486533 2.5378387 0.87604296
-0.17480163 2.5378189 0.87471098
-0.12261828 2.5378606 0.87068176
-0.074149303 2.537827 0.86758018
-0.023539506 2.5385814 0.87116241
0.024830716 2.5390871 0.87516057
0.07862936 2.5394757 0.87226647
0.12532517 2.5398324 0.8737824
0.17575356 2.5401471 0.87382245
0.22426219 2.5400472 0.87412709
0.27449432 2.5400636 0.87454128
0.32407081 2.5400841 0.87546194
0.37421319 2.5403259 0.87400651
0.4252474 2.5403104 0.87409598
0.47369432 2.5404961 0.87328559
0.52480942 2.5405121 0.87286669
0.57628864 2.5404375 0.87363452
0.62515533 2.5404456 0.87403363
0.67565542 2.5404215 0.87268311
0.72548872 2.540333 0.8740893
0.77531755 2.5404005 0.87505525
0.82395303 2.5404966 0.87565362
0.87368286 2.5402992 0.8746469
0.92518342 2.5403831 0.8739351
0.97507596 2.5401635 0.87364334
1.0239263 2.5401385 0.87248808
1.0774528 2.5308957 0.8741529
1.1027588 2.504566 0.8639515
-1.1013379 -2.5016494 0.92665583
-1.0769094 -2.5332754 0.9221822
-1.0271082 -2.5401316 0.92315042
-0.97285998 -2.5400867 0.92209196
-0.92539537 -2.54005 0.92098808
-0.87549567 -2.5400088 0.92051035
-0.82700211 -2.5399706 0.9183116
-0.77778858 -2.539928 0.91981161
-0.72420692 -2.5398829 0.91999477
-0.67670238 -2.539845 0.9181903
-0.62942314 -2.5398073 0.91639441
-0.57747483 -2.5397651 0.91566777
-0.52215421 -2.5397165 0.91916519
-0.47556195 -2.5396795 0.91738003
-0.4291884 -2.5396426 0.91560316
-0.3830125 -2.5396059 0.91383404
0.63321686 -2.5355806 0.90920234
0.66927481 -2.5355344 0.91221231
0.72744811 -2.5354602 0.91656172
0.78035152 -2.5353916 0.9214679
0.83086067 -2.5353279 0.92367303
0.87758559 -2.5352776 0.92601359
0.92921102 -2.5352199 0.92152029
0.97646701 -2.5351729 0.92019665
1.0229778 -2.5351238 0.92135757
1.075477 -2.5324819 0.92365062
1.1049968 -2.5097833 0.92047709
-1.1173034 -2.4742076 0.91677821
1.1236584 -2.4774578 0.92385256
-1.1598504 -2.4006186 0.91559023
-1.1413991 -2.4324796 0.91715205
1.1457525 -2.4389453 0.92058152
1.1593906 -2.4155562 0.92329818
-1.1768856 -2.3712063 0.9103393
1.1832019 -2.3740811 0.92442387
-1.2103126 -2.3134863 0.90671623
-1.1937224 -2.3421297 0.91187388
1.1982617 -2.3482964 0.92650586
1.2118026 -2.3244538 0.92231882
-1.2267104 -2.2851748 0.90161836
1.2363334 -2.2819786 0.92232525
1.2512594 -2.256094 0.92661506
1.2699751 -2.2236118 0.92315722
-1.3033791 -2.1580892 0.9284659
-1.2963108 -2.1703253 0.92279124
1.2927271 -2.1841369 0.92115211
1.3065792 -2.1600766 0.91784817
-1.3209513 -2.1276963 0.92502546
1.3264858 -2.1255624 0.92245263
-1.3384032 -2.0975103 0.92160869
1.3457823 -2.0921094 0.92574543
1.3596736 -2.0678601 0.91924244
1.3832425 -2.0270028 0.92194068
1.4181834 -1.9963537 0.92372543
1.4782908 -1.9956024 0.92347467
1.5251402 -1.9952606 0.92222494
1.5742863 -1.9950367 0.92486697
1.6244438 -1.9951556 0.92575186
1.6724315 -1.9952914 0.9250645
1.7265905 -1.995124 0.92251152
1.7810146 -1.985687 0.92448819
1.8033074 -1.9577918 0.92418003
1.8217027 -1.9254718 0.92429763
1.8430541 -1.8880242 0.92598796
1.8577641 -1.8635335 0.92436773
1.8793187 -1.8256321 0.92406869
1.8956901 -1.7968103 0.92980742
1.909192 -1.7741673 0.92520297
1.9357377 -1.7278918 0.92685169
1.9514506 -1.7008343 0.92435098
1.9656003 -1.6760508 0.92465079
1.9898047 -1.6339246 0.92681193
2.0036843 -1.6100849 0.92416155
-2.0347455 -1.5503281 0.9054209
2.0195777 -1.5821552 0.92726839
-2.0539737 -1.5170659 0.90253842
-2.042455 -1.5369916 0.90426505
2.0546842 -1.5171255 0.93622279
-2.0654469 -1.497218 0.90081841
2.0790968 -1.4747307 0.92754245
2.0944755 -1.4480242 0.92234063
2.1087413 -1.4229851 0.92227775
2.1341639 -1.3775765 0.9241454
2.1503053 -1.3519734 0.92231607
2.1497071 -1.3496337 0.92190856
2.1655686 -1.3234783 0.92425519
-2.2099173 -1.2608001 0.90552425
-2.1942878 -1.2877758 0.90159535
2.1889088 -1.282203 0.92565489
2.2032535 -1.2576387 0.92474449
-2.2296863 -1.2266804 0.91049367
2.219193 -1.2298514 0.9252848
-2.2618346 -1.171203 0.91179252
-2.2456658 -1.1991092 0.90776277
2.2432649 -1.1880066 0.92518967
2.2572317 -1.1640315 0.92416817
-2.3029478 -1.1002535 0.91516811
-2.286381 -1.1288375 0.91791034
2.2807889 -1.1229908 0.92440891
-2.3198817 -1.0694946 0.91978973
2.2968636 -1.0943705 0.92520064
2.311022 -1.0710093 0.92475873
-2.3524323 -1.0101935 0.92592269
-2.340518 -1.0307846 0.92437381
2.3368237 -1.0257055 0.92531222
2.3500345 -1.0021687 0.92164826
-2.3735597 -0.97368532 0.9246003
2.3650591 -0.97708184 0.92350137
-2.4046226 -0.92000425 0.9255591
-2.3925009 -0.94095445 0.92399698
2.3914065 -0.9317292 0.92469007
2.4043612 -0.91027135 0.92485875
-2.4278543 -0.87985885 0.92547303
2.4240456 -0.87593305 0.9244256
-2.4618227 -0.82115698 0.92571545
-2.4494772 -0.84249431 0.92413872
2.4423308 -0.84330994 0.92496544
2.4586267 -0.81572264 0.92513943
-2.4878614 -0.77616185 0.92489612
2.4821162 -0.77511179 0.92487967
-2.5158947 -0.72771668 0.92534369
2.4976888 -0.74707448 0.9254902
2.5134616 -0.72063476 0.92462987
-2.5581195 -0.6547516 0.9233622
-2.5403216 -0.685507 0.9240486
2.5379977 -0.67778486 0.92513472
2.5524933 -0.65305865 0.92504978
-2.5751734 -0.62527764 0.92550099
2.5684237 -0.62484378 0.92523474
-2.6103358 -0.56451505 0.92453611
-2.5923038 -0.59567213 0.92764932
2.5920565 -0.58325469 0.92572457
2.6076972 -0.55682653 0.9246757
-2.6312184 -0.52842742 0.9251194
2.6218867 -0.52643228 0.92489874
2.5961909 -0.45927635 0.92458135
2.6097503 -0.48246512 0.92425746
2.5775521 -0.4272787 0.92504984
-2.7240953 -0.36662135 0.90995598
2.5409992 -0.36479151 0.92463833
2.5548453 -0.38815284 0.92576241
-2.7559795 -0.31148809 0.91518641
-2.7445004 -0.33133888 0.9118523
2.5180047 -0.32470652 0.92487937
-2.7769246 -0.27527231 0.91714174
2.4872873 -0.2714254 0.92512804
2.5036933 -0.2982769 0.92448199
-2.8109 -0.21652132 0.92418832
-2.7949724 -0.24406512 0.91960198
2.4478159 -0.20449194 0.92463815
2.4623988 -0.22852053 0.92494434
-2.8351152 -0.17465401 0.92415041
2.4307444 -0.17489196 0.92585623
-2.8639233 -0.12484334 0.9252733
2.3939459 -0.11160579 0.92572886
2.4084492 -0.13608931 0.92524487
-2.9017785 -0.060761679 0.92294604
-2.8890483 -0.081402406 0.92525452
2.3719883 -0.073364928 0.92385709
-2.9219506 -0.023854606 0.92616111
2.3385286 -0.015228476 0.92388678
2.3527772 -0.039513454 0.92562008
-2.9155986 0.024739541 0.92642057
2.3355885 0.021163661 0.92481518
2.3508015 0.046894908 0.91053873
-2.8860831 0.076137483 0.92393553
2.3496044 0.050040562 0.92814136
2.3650665 0.074269839 0.92436326
-2.8611863 0.11918015 0.92296177
-2.8464994 0.14455792 0.92528975
2.3890538 0.11613127 0.9241817
2.4042025 0.14216325 0.92557526
-2.8320041 0.1701394 0.92645639
2.4215927 0.17184146 0.92397588
-2.8101232 0.20839144 0.92537642
-2.7948606 0.23485243 0.92385566
2.4446592 0.2116264 0.92329311
2.4578588 0.23439923 0.92466134
-2.7731607 0.27246943 0.92473859
2.4827907 0.27768984 0.92564273
-2.7531757 0.30711135 0.92679745
2.4971302 0.30349693 0.92431754
2.513854 0.33170167 0.92283744
2.536341 0.37080023 0.92505622
2.5525079 0.39696699 0.9228304
2.5680411 0.42533076 0.9244861
2.5904429 0.46438774 0.92419529
2.6041837 0.48767206 0.92465222
2.6215012 0.52336442 0.9215638
2.59565 0.59128994 0.92529136
2.6097457 0.56679487 0.92595929
2.5779667 0.62195265 0.92478609
2.5426641 0.68307465 0.92323071
2.5570681 0.65813595 0.92175239
2.5215001 0.71966165 0.92198068
2.488636 0.77642828 0.92092818
2.5022743 0.75270772 0.92034185
2.446985 0.84819084 0.91531825
2.4630275 0.82067871 0.92014772
2.4308801 0.87605417 0.91851658
2.392503 0.94246441 0.91359639
2.4086788 0.91452551 0.91583109
2.3734133 0.97539014 0.91008121
2.3415093 1.0306169 0.90925813
2.3544064 1.0082643 0.90844458
-2.3151913 1.0755759 0.91019785
2.3283849 1.0534546 0.90426087
-2.2859294 1.1245351 0.9135235
2.2790039 1.1342739 0.92445797
-2.2624147 1.1648991 0.91405994
-2.2461381 1.1919767 0.91367209
2.2455461 1.1921645 0.92804193
2.2609048 1.1655911 0.92555845
-2.2310753 1.2208742 0.921664
2.2234335 1.2304329 0.92542535
-2.2087653 1.2604103 0.92366409
-2.1944425 1.2852871 0.92403632
2.191426 1.2858217 0.9234972
2.2050993 1.2621617 0.92325592
-2.172982 1.3225596 0.92603981
2.1687567 1.3250453 0.92636913
-2.152926 1.3573936 0.92668033
-2.1375687 1.3840727 0.92312557
2.1364768 1.3792304 0.92658293
2.1543159 1.3500475 0.91724664
-2.1155999 1.4185109 0.92065823
-2.0970592 1.4478458 0.91836357
2.0961144 1.4444475 0.91706926
2.1126921 1.4201938 0.92644578
-2.0828011 1.4757782 0.9211449
2.0779364 1.4771751 0.92426968
-2.0578227 1.5195481 0.92434597
-2.0441768 1.5417681 0.91624802
2.0427518 1.5373827 0.9214136
2.0560441 1.5147245 0.91959298
-2.0243137 1.5761063 0.92356771
2.0160131 1.5789189 0.91691208
-2.0043533 1.6129462 0.92372996
-1.9896873 1.636385 0.92432171
1.9887066 1.626076 0.92036462
-1.9667243 1.6757101 0.9230274
1.9466808 1.6986521 0.92566526
1.9627899 1.6708304 0.92516404
-1.9506931 1.7086509 0.9286375
-1.937516 1.7263147 0.92396784
1.9303439 1.7268667 0.92616767
-1.9147527 1.7670381 0.92304832
-1.89825 1.7954016 0.92436713
1.8936532 1.790109 0.93529588
1.9071642 1.7667851 0.9300124
-1.8803697 1.8259511 0.92235643
1.8760883 1.8204468 0.93454349
-1.8590018 1.8644041 0.92357087
-1.8457304 1.8858937 0.92406636
1.8443688 1.8818105 0.9298802
1.8576895 1.8593701 0.92870349
-1.8222698 1.9284102 0.92348152
1.8202692 1.9251539 0.93243021
-1.8055217 1.9593271 0.92431402
-1.7814277 1.988869 0.92326081
-1.7225906 1.9966998 0.92420292
-1.6746651 1.9962405 0.92538953
-1.6261958 1.9964499 0.92389399
-1.5779021 1.9954199 0.92501807
-1.5252904 1.9949164 0.92526478
-1.4700009 1.9947705 0.92577332
-1.4238251 1.9955759 0.92517519
1.7886578 1.979767 0.93176073
1.8035603 1.9564948 0.92892474
-1.3856089 2.0253606 0.9254142
1.3798268 2.0224888 0.92395085
1.4247653 2.0027757 0.92491949
1.4748158 2.0029397 0.92520583
1.5241921 2.0029876 0.92569822
1.5755101 2.0030901 0.92369705
1.6236137 2.0036407 0.92679518
1.6748211 2.0054345 0.93023938
1.7275679 2.0065882 0.92871565
1.7707608 2.0079703 0.92519778
-1.3623989 2.0656798 0.92739308
-1.3451807 2.0953317 0.92902637
1.3414222 2.0868313 0.92495215
1.3562748 2.0613668 0.9238838
-1.3279032 2.1256371 0.92470938
1.3191812 2.1256135 0.92531949
-1.3054436 2.1645613 0.92284304
-1.2933207 2.1855495 0.92535895
1.2877791 2.1804197 0.9250741
1.3044901 2.1511912 0.92434597
-1.2716007 2.2239044 0.92473972
1.2485788 2.2467303 0.92347509
1.261885 2.2242601 0.92492437
-1.2399381 2.2789462 0.92633039
1.2314589 2.2767029 0.92576873
-1.2149329 2.3223376 0.91996062
1.1936315 2.3412886 0.92349976
1.20745 2.3189023 0.92467982
-1.1848319 2.3747156 0.92480755
1.175528 2.3732393 0.92448741
-1.1599883 2.4176061 0.92830771
-1.1449566 2.4438639 0.93087864
1.140304 2.4336948 0.92615128
1.1542546 2.4109244 0.92390835
-1.1264942 2.4757104 0.92383528
1.1165216 2.4752216 0.92582506
-1.1065234 2.5099742 0.92375928
-1.0784167 2.5335422 0.92336011
-1.0256447 2.5355825 0.92548788
-0.97583795 2.535902 0.92544836
-0.92301148 2.5362029 0.92452663
-0.87208426 2.5362639 0.92502224
-0.82480681 2.5361736 0.92662311
-0.77385646 2.5361648 0.92511946
-0.72365046 2.5357912 0.92425561
-0.67380738 2.5359268 0.92654926
-0.62713569 2.5361617 0.92334676
-0.57411128 2.5358202 0.92304116
-0.52395254 2.5360589 0.92358595
-0.47275034 2.5359213 0.92413342
-0.42239073 2.5357792 0.92289925
-0.381394 2.5362532 0.92071742
-0.32377234 2.5377929 0.90798742
-0.27554965 2.5378182 0.9039256
-0.24140984 2.5378361 0.90104997
-0.00848711 2.5397086 0.92536598
0.026235187 2.5394111 0.9247694
0.081503622 2.5395627 0.92411184
0.12637198 2.5396872 0.92360234
0.1753774 2.5398793 0.92527419
0.22377327 2.5399299 0.92530292
0.27372819 2.53986 0.92537379
0.32515523 2.5397692 0.92713106
0.37551922 2.5398302 0.9252708
0.42610151 2.5398514 0.92516702
0.47548035 2.5401177 0.92469251
0.52586758 2.5401285 0.9248848
0.57467151 2.5402629 0.92458975
0.62318057 2.5403333 0.92434525
0.6740312 2.540375 0.92386806
0.7244553 2.5405381 0.92500848
0.77757907 2.5407219 0.92504883
0.82642257 2.540921 0.9253
0.87485993 2.5406997 0.9252528
0.92330933 2.5406306 0.92478693
0.97410166 2.5405445 0.92315322
1.0236288 2.5405393 0.92270201
1.0780014 2.53057 0.92464948
0.89607453 -2.5352311 0.95232272
0.93007416 -2.5351861 0.95731837
0.98526919 -2.5351167 0.95967674
1.0255989 -2.535064 0.96412057
1.0801024 -2.5314882 0.96717298
1.1052419 -2.5096703 0.96480531
1.1247833 -2.4757481 0.97011042
1.1442517 -2.4419644 0.96812165
1.1597486 -2.4150727 0.96653861
1.1828923 -2.3749115 0.96417445
1.198254 -2.3482542 0.96260512
1.2135491 -2.3217132 0.9610427
1.2363919 -2.2820737 0.95870918
1.2515523 -2.2557554 0.96433276
1.2704115 -2.2230284 0.96238959
-1.2962761 -2.170347 0.95103204
1.2929453 -2.1839256 0.96006787
1.3078934 -2.1579852 0.95852768
1.326499 -2.1256993 0.95661062
1.3450247 -2.0935512 0.95470184
1.3597817 -2.0679426 0.95318127
1.3781496 -2.0360692 0.9512887
1.4284656 -1.9963033 0.95295876
1.4792418 -1.9962364 0.96041942
1.5308837 -1.9961727 0.96080267
1.5762987 -1.9955292 0.96303535
1.6279776 -1.9956919 0.96815807
1.6750084 -1.9950817 0.96997815
1.725159 -1.9951487 0.9724806
1.779832 -1.9871049 0.96921766
1.8078955 -1.9695808 0.97377539
1.8500744 -1.9957581 0.99969667
1.8216336 -1.9257134 0.96695989
1.8434399 -1.8874496 0.9665671
1.8589274 -1.8614986 0.96776372
1.8790283 -1.8258426 0.96546108
1.8958421 -1.7959603 0.9638598
1.9089462 -1.7742085 0.96530014
1.9359245 -1.726758 0.96551561
1.9644884 -1.6772138 0.9688198
1.9887087 -1.6356362 0.96796238
2.0041575 -1.608753 0.9664647
2.0200858 -1.5771912 0.95834959
2.0402024 -1.5422478 0.95757568
2.0549433 -1.5161749 0.9608137
2.0778928 -1.4757839 0.96562731
2.0968142 -1.4427608 0.966685
2.1094472 -1.4209467 0.96616119
2.1324668 -1.3806576 0.96354312
2.1497099 -1.3495809 0.95780706
2.1632309 -1.3264104 0.96633375
2.1868355 -1.2852333 0.96871847
2.2023268 -1.2583154 0.96843809
2.2208107 -1.2263798 0.96741486
2.2444155 -1.1855328 0.96965265
2.2579687 -1.1625816 0.96690685
2.2811794 -1.1218295 0.96567374
-2.3286076 -1.0513272 0.95107007
2.2968738 -1.0942796 0.96735162
2.311095 -1.0699989 0.96757007
-2.3523943 -1.0102177 0.95427203
-2.3404803 -1.0308079 0.95266831
2.3355587 -1.0273838 0.9656601
2.3500128 -1.0019972 0.96155393
-2.3723698 -0.97569311 0.95696104
2.3669167 -0.97350448 0.96839118
-2.4045711 -0.92004037 0.96129572
-2.3924494 -0.9409892 0.95966417
2.3909624 -0.93249577 0.96964633
2.4041946 -0.91117865 0.96983987
-2.4316881 -0.8731814 0.96015567
2.4255373 -0.87391114 0.96943623
-2.4617665 -0.8211996 0.96178114
-2.4494216 -0.84253561 0.96013343
2.4423084 -0.84366089 0.96953505
2.4591057 -0.81513464 0.96920764
-2.4866095 -0.77826464 0.96509659
2.4816542 -0.77614707 0.96841568
-2.5158231 -0.72777539 0.96899563
2.497226 -0.7474277 0.97004771
2.5125802 -0.72239912 0.96933168
-2.5580444 -0.65481633 0.96730566
-2.5421507 -0.68228149 0.96702653
2.5376098 -0.67879921 0.96882635
2.552701 -0.65309656 0.96913147
-2.5750961 -0.62534475 0.96956187
2.5685048 -0.62494642 0.96813852
-2.6094744 -0.56594056 0.96672654
-2.5922244 -0.59574169 0.97182822
2.5919154 -0.5839029 0.96966416
2.6111443 -0.55639726 0.9704501
2.6546454 -0.56014061 0.99953794
-2.6311364 -0.5285027 0.96956778
2.6248772 -0.52646363 0.9739843
2.5964046 -0.45986539 0.97170269
2.6095161 -0.48184821 0.97281426
2.5770333 -0.42676759 0.97401905
2.5406561 -0.36511758 0.97493684
2.555671 -0.39076105 0.97364038
2.5177011 -0.32519588 0.9745816
2.4870427 -0.2717258 0.97369742
2.5027144 -0.29784665 0.97153544
2.4477417 -0.20523314 0.97435892
2.4639251 -0.23213539 0.97495848
2.4305599 -0.17487845 0.97384208
-2.8680687 -0.11764244 0.95483524
2.3939044 -0.11175809 0.97423732
2.4080374 -0.13557787 0.97338361
-2.9017251 -0.061074067 0.96552002
-2.8890495 -0.081359804 0.96098167
2.3715997 -0.072907552 0.97425997
-2.922518 -0.022844898 0.96527791
2.3389313 -0.016431747 0.97351748
2.3527744 -0.040327989 0.97491729
-2.9151125 0.025470484 0.96604812
2.3364336 0.025075562 0.97424018
-2.8861394 0.075824589 0.96683657
2.349611 0.050101083 0.9740634
2.3648398 0.075278021 0.97442406
-2.8622346 0.11723976 0.96433496
-2.8461769 0.14518689 0.964535
2.3896475 0.11769099 0.97315043
2.4044824 0.14375803 0.9760294
-2.8336093 0.16710648 0.96590459
2.4229994 0.17529212 0.97483462
-2.8100791 0.20841324 0.96109933
-2.7948174 0.23487258 0.95951092
2.4451017 0.21331106 0.97299069
2.4598594 0.23900071 0.97407991
-2.7720404 0.27436143 0.95714021
2.4849205 0.28225103 0.97243458
-2.7531428 0.30712378 0.95517337
2.496551 0.30237144 0.9702583
2.5131786 0.33124518 0.97038913
2.5362263 0.37095523 0.97336757
2.5524635 0.39695525 0.96634054
2.5658231 0.42238364 0.97231483
2.5893767 0.46273115 0.9667483
2.6040597 0.48736179 0.96587175
2.6219513 0.52057701 0.96938378
2.5927138 0.59676963 0.967219
2.611552 0.56422609 0.96904314
2.5753615 0.62675005 0.96264869
2.5454051 0.67849791 0.9619118
2.5581656 0.65646023 0.95811975
2.5202057 0.72203588 0.95521778
2.4363909 0.86474061 0.96837097
2.2789981 1.134215 0.96971208
2.245543 1.1921126 0.96556842
2.2603698 1.1664531 0.96740478
2.2234311 1.230368 0.97031015
2.1905165 1.2873303 0.96619689
2.2050984 1.2620951 0.96801907
-2.1643174 1.3375746 0.95230949
2.1651454 1.3312271 0.97044235
-2.1528959 1.3574092 0.9550584
-2.1375318 1.3840905 0.95875674
2.1356864 1.3798672 0.96987283
-2.1126885 1.427241 0.9589923
2.0960743 1.4470167 0.97115254
2.112663 1.4201761 0.97056109
-2.0866737 1.4724199 0.96376926
2.079354 1.4759598 0.96757042
-2.0575273 1.5230397 0.9675948
-2.0424914 1.5491562 0.96699309
2.04215 1.5403457 0.96805388
2.0565858 1.5153644 0.96691418
-2.0271542 1.575793 0.96877915
-2.0054841 1.6134326 0.96835268
-1.9879525 1.6438837 0.96800077
-1.9676955 1.6790665 0.96974128
-1.950664 1.7086524 0.96619165
-1.937766 1.7310517 0.96916366
1.9251374 1.7358279 0.95316386
-1.9138025 1.7714421 0.96667033
-1.8986168 1.7978086 0.96994424
1.8944508 1.7888176 0.96231961
1.9076807 1.7659717 0.95837229
-1.8803918 1.8277953 0.96214908
1.8763443 1.8200294 0.95878923
-1.8591064 1.8651549 0.96639186
-1.8459524 1.8870822 0.96550655
1.8421001 1.8826858 0.96828127
1.8578585 1.8572482 0.96857786
-1.8227718 1.9279913 0.96970588
1.8165802 1.9274951 0.96817446
-1.8122661 1.9725286 0.97802073
-1.7798387 1.9912277 0.97396368
-1.7221055 1.9966478 0.97448832
-1.6755177 1.9964008 0.97584158
-1.6229293 1.9964406 0.9760893
-1.5794767 1.995342 0.97222894
-1.5250027 1.9947796 0.9751367
-1.4701363 1.99483 0.97682762
-1.4221274 1.9955463 0.97467923
1.7861879 1.9793584 0.96759963
1.8035594 1.9564352 0.96796644
-1.3861547 2.0244415 0.97271729
1.3775678 2.0238345 0.96822929
1.4258534 2.0032287 0.9684903
1.4774189 2.0028865 0.96700633
1.5224533 2.0036585 0.96954393
1.5754659 2.0037918 0.97236663
1.6235653 2.0036347 0.97100592
1.6761374 2.0039248 0.97352451
1.7260303 2.0044334 0.97306204
1.7634182 2.0047081 0.97470045
1.8150691 2.0081334 0.99673605
-1.361351 2.0673602 0.97425288
-1.3451633 2.0952003 0.9756301
1.3414793 2.0863519 0.97300142
1.3565148 2.0609777 0.96611702
-1.3275027 2.1261287 0.97682095
1.318504 2.1262207 0.97265476
-1.3054982 2.1644969 0.97287446
-1.293301 2.1855111 0.97349626
1.286869 2.1812465 0.97545725
1.3044027 2.1505363 0.97184849
-1.270678 2.2254326 0.97603983
1.2485725 2.2466824 0.97722816
1.2622992 2.2233102 0.97368717
-1.2406409 2.2775986 0.97988397
1.2316 2.2760501 0.97497493
-1.2157547 2.3208835 0.97379225
1.1939597 2.3405764 0.97311008
1.2081202 2.3174112 0.97237289
-1.1847978 2.3747051 0.97313809
1.174844 2.3740833 0.97532487
-1.1599551 2.4175928 0.97726065
-1.1449249 2.4438486 0.97974104
1.140615 2.4333181 0.97488499
1.1534903 2.4120133 0.97334623
-1.1260754 2.4764812 0.97414923
1.1166223 2.4748888 0.97502857
-1.10726 2.5090606 0.96961546
-1.0775266 2.5331662 0.97043055
-1.0255244 2.5353999 0.96852803
-0.97529513 2.5353115 0.966075
-0.92112339 2.5350475 0.9678117
-0.87301195 2.5356033 0.96513456
-0.82782125 2.5352771 0.96553218
-0.77231532 2.5345621 0.96706706
-0.72611481 2.5349355 0.96897739
-0.67301238 2.5350442 0.96940964
-0.62950724 2.5347052 0.97000951
-0.57772273 2.5351274 0.96925789
-0.52396458 2.535048 0.96997583
-0.47358593 2.5350254 0.96956986
-0.42356715 2.5346594 0.96995139
-0.39032573 2.5347145 0.96624005
-0.007241358 2.5396321 0.97388351
0.025337843 2.539371 0.96904337
0.082352325 2.5395215 0.96935678
0.12564294 2.5397837 0.96872264
0.17400371 2.5399058 0.96952218
0.22204782 2.5399382 0.96945429
0.27378935 2.5400226 0.96748239
0.32507959 2.5397933 0.96804875
0.37445569 2.5397696 0.97006577
0.42450958 2.5397127 0.96894926
0.47606459 2.5400155 0.96781588
0.52485955 2.5400431 0.96940178
0.57381433 2.5402391 0.97008103
0.62389219 2.5403433 0.9705056
0.67418152 2.5402956 0.97101569
0.72475201 2.5403271 0.97022849
0.77704692 2.5404382 0.97111863
0.82568622 2.5404577 0.97051442
0.87472516 2.5406425 0.97047323
0.92388284 2.5405538 0.97026068
0.97397357 2.5404778 0.96810567
1.023284 2.5404449 0.9689483
1.0802723 2.5287213 0.97359204
1.0636815 2.5656643 0.99630201
1.7698236 -1.9958549 1.0031152
1.8268081 -1.9951388 1.0072285
1.8775133 -1.9949347 1.0142174
1.9311056 -1.9946543 1.0215721
1.9786303 -1.9945765 1.0292279
2.0310352 -1.99449 1.0376707
2.0709739 -1.9940766 1.0431184
2.1102333 -1.9933089 1.0478278
2.7793171 -0.77526981 1.0467563
2.7430072 -0.71366107 1.0387065
2.7564752 -0.73668605 1.0412464
2.7205122 -0.67484671 1.0369751
2.6879971 -0.61889261 1.0288002
2.7051129 -0.64757967 1.0305326
2.646764 -0.5515852 1.0111628
2.6636393 -0.5765059 1.0217055
2.6348746 -0.5269835 1.0222119
2.5979261 -0.46333861 1.0246046
2.6103468 -0.4842099 1.0214945
2.5771403 -0.42723429 1.0214992
2.5395913 -0.36216208 1.0235908
2.5563912 -0.39119324 1.0247817
2.5169137 -0.32302696 1.0226468
2.4897797 -0.27608615 1.0246519
2.5030518 -0.29992399 1.0005044
2.4466813 -0.20186281 1.0254664
2.4634299 -0.23052089 1.0251447
2.4305007 -0.17380525 1.01969
2.3942444 -0.11157742 1.0210468
2.408145 -0.13557731 1.0225101
2.3732266 -0.075244278 1.019407
2.3380911 -0.014347447 1.017259
2.3537586 -0.041472755 1.0199592
2.3378193 0.028268883 1.0158536
2.3496177 0.050151706 1.012328
2.3660665 0.077728465 1.0185785
2.3897314 0.11899041 1.0215558
2.4045985 0.14470086 1.0233386
2.4239159 0.17832604 1.0245931
2.4441857 0.21343789 1.0273781
2.4598441 0.24016064 1.0265353
2.4814363 0.27747065 1.0233043
2.494837 0.30137533 1.0266988
2.5110426 0.32857043 1.0192147
2.5355089 0.3708407 1.0232412
2.5663607 0.42337734 1.0220872
-2.0286901 1.9971937 1.0484501
-1.9733251 1.9966968 1.0360297
-1.9253811 1.9954283 1.0317765
-1.869549 1.9948057 1.0270855
-1.8276246 1.9956173 1.0252335
-1.776808 1.9955709 1.0247266
-1.7234479 1.9959704 1.0241826
-1.6768544 1.9957689 1.0232792
-1.6222357 1.995954 1.0217992
-1.5814822 1.9949678 1.0230541
-1.5250251 1.9949772 1.0251765
-1.4700352 1.9949354 1.0239666
-1.42369 1.9959569 1.0227661
-1.3844601 2.0270095 1.0206953
1.6182625 2.007818 1.0054307
1.6774111 2.0079105 1.0118892
1.728698 2.0079899 1.019289
1.7767384 2.0067813 1.0149339
1.8170319 2.0070224 1.0238067
1.8745598 2.0082209 1.0236701
1.9200989 2.008291 1.0322607
1.9666004 2.0083649 1.0329242
2.0246174 2.008455 1.0410246
2.0785272 2.0085394 1.0455556
-1.3610004 2.0677164 1.0211817
-1.3446503 2.0960546 1.0248597
-1.3269717 2.1267989 1.0229845
1.3153325 2.1312239 1.0015525
-1.3055545 2.1641388 1.0209824
-1.2929146 2.1861167 1.0194576
1.2864136 2.181092 1.0095025
1.3042034 2.1505706 1.0066956
-1.2700298 2.2264879 1.0247142
1.2485681 2.2466481 1.0156178
1.2601354 2.2267962 1.0097525
-1.2406026 2.2775981 1.026383
1.233356 2.2735875 1.0151603
-1.214938 2.3222215 1.0268333
1.1925063 2.3434083 1.0225455
1.2086155 2.315629 1.0181974
-1.186102 2.3723867 1.0227749
1.173434 2.3761299 1.0204241
-1.1601264 2.4172385 1.0249045
-1.1448931 2.4438329 1.0285966
1.1403344 2.4333882 1.0207876
1.1555876 2.4078815 1.0233296
-1.1270872 2.4747598 1.0283741
1.116364 2.4750171 1.0240279
-1.1089965 2.5065799 1.022745
-1.0927386 2.534435 1.0212785
1.0872456 2.5250626 1.0221162
-1.070775 2.5725782 1.0250516
1.0465249 2.5966563 1.0258017
1.0628506 2.5676341 1.025607
-1.0505923 2.6068861 1.0290295
-1.0387295 2.6284013 1.0304389
1.0296155 2.6248703 1.0253131
-1.0162066 2.6673472 1.0315357
0.99211919 2.6895893 1.0304582
1.0058922 2.6664937 1.0282235
2.0916886 -1.9954314 1.0504075
2.1315148 -1.9946741 1.0547305
2.1771202 -1.9942484 1.0612127
2.8905501 -0.96749526 1.0910032
2.9098358 -0.99934465 1.0968841
2.8645568 -0.92294294 1.0845575
2.8354402 -0.87284428 1.0786546
2.7964289 -0.8061493 1.0717506
2.8113582 -0.83119506 1.0747056
2.7792175 -0.77614057 1.0747765
2.743392 -0.71429366 1.0712466
2.7582269 -0.73989928 1.0715592
2.7214472 -0.67641252 1.0756394
2.6895664 -0.62144297 1.075616
2.7045701 -0.64690119 1.0674791
2.6626472 -0.57486218 1.0689467
2.6351328 -0.52731699 1.0730641
2.5975423 -0.46245384 1.0700718
2.6115632 -0.48664334 1.0713354
2.577929 -0.42852336 1.0655365
2.5394902 -0.36210725 1.0640368
2.5555372 -0.38990012 1.0682335
2.5161264 -0.3219111 1.0632595
2.4920032 -0.28022537 1.0620739
2.4466586 -0.20186344 1.0563504
2.4638288 -0.23153746 1.0599967
2.4296443 -0.17245817 1.0527366
2.4306097 0.18926707 1.0530071
2.4453795 0.21491316 1.0561532
2.4612672 0.24332571 1.0569783
2.4778743 0.27217123 1.0613104
2.4950023 0.30148953 1.0584338
2.5098605 0.32772046 1.0617034
2.5368185 0.37454498 1.0686862
2.5674906 0.42801872 1.071486
2.593184 0.47266775 1.0790162
2.6094527 0.49980897 1.0911022
2.6201022 0.51971424 1.080992
2.6420147 0.55771613 1.08621
2.6570399 0.58427644 1.0867591
2.6815147 0.62679601 1.0884278
2.698668 0.65659857 1.0935471
2.7102113 0.67665529 1.0969924
2.7453454 0.73768181 1.0900831
2.7572234 0.75832039 1.0935656
2.8953433 0.99702513 1.090899
-2.1779222 1.9970156 1.0771704
-2.1160243 1.9968605 1.0701493
-2.0715945 1.996133 1.0729958
-2.0197186 1.9957943 1.0762618
-1.9745078 1.9952326 1.0722499
-1.9243959 1.9946024 1.0695863
-1.8734432 1.9946765 1.0717133
-1.8282638 1.994568 1.0736842
-1.7799855 1.9946398 1.0723478
-1.7290888 1.9950444 1.0728247
-1.6781572 1.9944804 1.067996
-1.6192678 1.9949619 1.0627896
-1.5818865 1.995524 1.0601737
-1.5292581 1.9953394 1.0591701
-1.4721603 1.9963992 1.0557358
-1.4400934 1.9964342 1.0521293
-1.3799732 2.0350981 1.0520233
1.8746264 2.0082123 1.0555022
1.9201646 2.0082822 1.0643965
1.966665 2.0083561 1.0653707
2.0332365 2.0084598 1.0733174
2.0785904 2.0085304 1.0787493
2.111511 2.0085852 1.0683688
-1.3592852 2.0710032 1.055884
